-0.0647584671420757 -0.0330063855375827 -0.0344452492042944 0.0804335486323511 1726915237.08634
-0.0584852923271755  0.0166730521172225 -0.0168149720918777 0.0630972532837161 1726915237.10342
  -0.105333779268175 -0.00750196080143707  -0.0247151730032024 0.108454249558794 1726915237.12309
 -0.101419532138679 -0.0821549317230906  0.0324752812429985 0.134499063927843 1726915237.1699
-0.0723742362481943 -0.0695748074573228  0.0277376356529484 0.104154022182769 1726915237.18721
-0.0542278343910762  0.0457377699907468 -0.0142545880149399 0.0723587928723808 1726915237.20434
 -0.100183972806429  0.0178975161531132 -0.0345397290239686 0.107471588677098 1726915237.22402
-0.0920841072533607 -0.0805533491366765 0.00426216965148725 0.122419324274895 1726915237.27069
 -0.0944362605116384  -0.0658678178761467 -0.00115604589901778 0.115143880312016 1726915237.28813
-0.0620966766222181  0.0560803865300458 -0.0269827664834317 0.087915167565006 1726915237.30511
 -0.117593153770714  0.0293501815003462 -0.0391381063949515 0.127363159273114 1726915237.32492
 -0.184575415195046  -0.156325185845851 -0.0844717592418014 0.256205241424855 1726915237.37165
 -0.140558856219334  -0.110242983896976 -0.0646299288738506 0.18996666883018 1726915237.38895
 -0.079088859170054   0.114037727943977 -0.0282988119372601 0.14163500201753 1726915237.40606
 -0.145093329565771  0.0874995860788808 -0.0184758039611933 0.170439453121832 1726915237.42595
 -0.124736798168181 -0.0910785140971762 -0.0984592867313454 0.183163303341702 1726915237.47238
 -0.134599427535318 -0.0598825072840047 -0.0553518523116042 0.157374547261557 1726915237.48984
 -0.048737859968804  0.0455106351835068 -0.0273737537507911 0.0720827254170786 1726915237.50691
 -0.156193476045296   0.022500366519262 -0.0204968675174481 0.159131360927509 1726915237.52686
-0.0822604882292827 -0.0622194594409755 -0.0466550240744885 0.11320220990881 1726915237.57324
-0.0629796352615286 -0.0582138047956274 -0.0209972489526751 0.0882959001881696 1726915237.59069
-0.0178618141316109  0.0209643288695756  -0.018641146145483 0.0332571769493622 1726915237.60773
 -0.0625838035028447 -0.00351718768958839  -0.0240440681720008 0.0671358345772679 1726915237.62773
-0.0185516942303442 -0.0262225341926378 -0.0261407034755293 0.041414043952454 1726915237.67418
-0.0829296357772348 -0.0136750033269274 -0.0307049866214055 0.0894825480725543 1726915237.69157
 -0.0582677523418042 -0.00228248670638741  -0.0283598547050878 0.0648430572029447 1726915237.70855
   -0.1055505370357 -0.0180813397305424 -0.0159003576096889 0.108262052849057 1726915237.74626
-0.0354156801930102 -0.0243488279734668  0.0176722407687727 0.0464698173119341 1726915237.77519
 -0.147723807271277 -0.0454425483599895 -0.0163122265867723 0.155413761206624 1726915237.79239
-0.0540615135392969 -0.0236280589183272 -0.0313812220219842 0.066825994268702 1726915237.80962
   -0.12387393742648   -0.046107822346614 -0.00901990716935168 0.132484121238849 1726915237.85241
 0.0129075667935296 0.00742268173174196  0.0269816788125813 0.0308174054093699 1726915237.87598
 -0.0472825623024233 -0.00520086905935215   0.0149483376329278 0.0498612327850312 1726915237.89326
 -0.030372931345082 -0.0122020843542091 -0.0163652943659566 0.0365954735010317 1726915237.91045
-0.0645896639800219 -0.0172322977056925 -0.0105841326173446 0.0676816122778653 1726915237.9534
 -0.0058087814404192   0.0124565259660804 -0.00428769378823208 0.0143976143505734 1726915237.977
  -0.0884272985141543 -0.000171345725121912   -0.0297351733713175 0.0932930705748888 1726915237.99416
-0.0492388237357476 -0.0145602469587984  -0.029073190550663 0.0590060417514713 1726915238.01126
 -0.0794894357454171   -0.032095102732453 -0.00483744340619229 0.0858607411640479 1726915238.05434
-0.0109813937755164 -0.0346215769130036  0.0213096958088458 0.0421111354948013 1726915238.07798
-0.0623434054035567 -0.0328637943442919 -0.0233593141536368 0.0742454492460274 1726915238.09499
-0.0300213901558362 -0.0070408205704449 -0.0315579826266182 0.0441221405720084 1726915238.11215
-0.0597918879151688 -0.0329138097315591 -0.0190271411448843 0.0708549280689264 1726915238.15563
-0.0105601461672972 -0.0593010341262538 0.00681781305708665 0.0606185772713215 1726915238.17893
-0.0502105802525389 -0.0626483836546561 -0.0241675366507178 0.0838450485813051 1726915238.19586
-0.0152323927428147 0.00801243187041065 -0.0152761204013976 0.023012707525785 1726915238.213
-0.0081532260188726 -0.0195330099321138  -0.042193921350139 0.0472053023549749 1726915238.25644
-0.0175099709771776 -0.0759711151074731  0.0107514213524168 0.0787007145799308 1726915238.27989
 -0.123531891777956 -0.0880771876504453 -0.0174582320603774 0.152717088556999 1726915238.29676
0.0102861186766485 0.0407084357678972 0.0141308869368199 0.044301951940296 1726915238.31404
  0.235845503536215 -0.0407224297490159 0.00872232984801627 0.23949425225022 1726915238.35758
  0.427719185262223  -0.241883607873382 -0.0532067678460907 0.494249270453535 1726915238.38085
 0.160566551097861 -0.260505494964185 -0.105262511293873 0.323612308977718 1726915238.3976
0.00372254368868852  -0.174536245563417 -0.0290569054404081 0.176977575134989 1726915238.41518
    0.144800169228803    -0.275118646131713 -2.80378764158181e-05 0.310897666836146 1726915238.46064
   0.226735428866174  -0.0778650003360224 -0.00101309886406886 0.239735144169071 1726915238.48163
 0.0650288429275925 -0.0894246683767298 -0.0754339404070114 0.133849920030302 1726915238.4985
-0.0321171882179872  0.0349536033221107 -0.0237222273210885 0.053066111910545 1726915238.51632
-0.00532264407469364  -0.0184277378729592  -0.0169767866103764 0.0256149047758258 1726915238.56367
 -0.0401606249411869  -0.0588394839922493 -0.00255886040052887 0.0712846998919841 1726915238.58252
 -0.107917944996612 -0.0570814380148709 -0.0303839090581415 0.125808407301702 1726915238.59935
-0.00672667364098451  0.00846602073408484   0.0208300807500467 0.023469424990735 1726915238.61738
-0.0124198184104251 -0.0188205233743598  -0.035087058017396 0.0417081002893787 1726915238.66587
 -0.077970667895449 -0.0610716416452054 -0.0427084235164577 0.107857219992747 1726915238.68337
 -0.195393932558358 -0.0475287026434275 -0.0331589186535764 0.203806968334898 1726915238.70017
-0.101985327661738 0.0548349478224252 0.0683613798580097 0.13446619209694 1726915238.7182
  -0.23659382706324   0.036563891009268 -0.0084659531419677 0.239552143577906 1726915238.76693
 -0.273402470289794  -0.102924779695702 -0.0732851643636216 0.301186215407966 1726915238.78428
 -0.314288097065143 -0.0896935273316555  -0.104641946620049 0.343179069575136 1726915238.80106
-0.0758437256468948  0.0419284528601488 0.00425213454264855 0.0867660447837514 1726915238.81926
  -0.23215199225054  0.0392070701453058 -0.0736990419329512 0.246704865450823 1726915238.86777
 -0.184280513343726 -0.0484872284134181  -0.048859527379916 0.196716985370432 1726915238.88516
 -0.242198897348644 -0.0371924715427425 -0.0908306595425975 0.261330814350891 1726915238.90194
-0.0999851616478121  0.0380222662281203 0.00706627342828725 0.107203812894059 1726915238.92029
 -0.217346806055385  0.0527445693295419 -0.0399604248664626 0.22719696136116 1726915238.96881
 -0.152709170455809  -0.023322315641125 -0.0542282732882403 0.163721491478638 1726915238.9861
  -0.229579935358042 -0.00681366425656241   -0.146290862324429 0.272313035198885 1726915239.00277
 -0.120181729206535  0.0311176202815958 -0.0253191715348306 0.126700492399488 1726915239.02133
 -0.273561833108035  0.0580303317319653 -0.0417405118070493 0.282747000444328 1726915239.0696
 -0.143534626793674  0.0203293628515432 -0.0249528944086414 0.147099010948809 1726915239.08683
 -0.160904424133089   0.029641554317995 -0.0752904210619784 0.180104144737643 1726915239.10363
-0.0172544837068328 -0.0162988875127221 -0.0135353932395629 0.0273235761255977 1726915239.12254
     -0.1146418766458 -0.000326282499240979   -0.0298988819863498 0.11847704201732 1726915239.1706
-0.107533653539716 0.0243792648227763 -0.015677833313862 0.111371583693131 1726915239.18769
 -0.140170550366032  0.0442069412946201 -0.0812679824343077 0.167947973543849 1726915239.2045
  -0.0365056201839825 -0.000785804494595017   -0.0053010483916062 0.0368968685361112 1726915239.2234
 -0.131917346755603  0.0200734541504763 -0.0117658090857822 0.133953589724249 1726915239.27176
 -0.134670011319793  0.0343939007238966 -0.0298515172330334 0.142162109709277 1726915239.2887
 -0.145255845486728  0.0613373569370053 -0.0763097549423738 0.175170518933544 1726915239.3054
-0.0451442869518206  0.0013402852929735 -0.0093281112360685 0.0461174226110626 1726915239.32455
-0.159724383085714 0.0323596314192392 -0.034585387973256 0.166598839608689 1726915239.37238
  -0.135209651921245   0.0336151934314264 -0.00337983801280763 0.139366619055961 1726915239.38949
 -0.131042246568765  0.0513240600767472 -0.0356430814378272 0.145178024449068 1726915239.40627
 -0.0197537842954742 -0.00112938678382737 6.29992549702283e-05 0.019786143570836 1726915239.42553
 -0.112908081304415  0.0290993437640143 -0.0231296803875271 0.118869629200102 1726915239.47332
 -0.140845874180641  0.0703709892348339 -0.0146264313477351 0.15812516843807 1726915239.49038
 -0.136328008848267   0.105598355980215 -0.0501217859925309 0.179578763258182 1726915239.50709
-0.0488113101712359 0.00761571960965175 0.00704043018757069 0.0499010104409869 1726915239.52649
 -0.166113954047826  0.0690908168681695 -0.0190592102896694 0.180916113715114 1726915239.5743
  -0.152225393690264   0.0675105795057648 -0.00443375848149824 0.166583033480701 1726915239.59132
-0.109583620867372 0.0765882801387378 -0.041650192001768 0.140032400217942 1726915239.60799
 -0.0269194739156545  0.00102328969891539 -0.00209023354385021 0.0270198866387583 1726915239.62734
  -0.13911379477102   0.048691670210569 -0.0239669412138615 0.149324950743796 1726915239.67527
 -0.147598961303853  0.0750499028488301 -0.0122667827949924 0.166037391137463 1726915239.69221
 -0.103616655104477  0.0656926792803312 -0.0878071293605041 0.15087090936493 1726915239.70886
 -0.0269582916698527 -0.00948459472167187  -0.0208770880892442 0.035391522062173 1726915239.72832
-0.125056904704702  0.033857326575305 -0.025405453125022 0.132026455779269 1726915239.77595
 -0.130474868465155  0.0913246809786913 -0.0235934730123262 0.16099857336524 1726915239.79301
-0.0534446437881763 0.00892447171261054 -0.0608020701586153 0.0814424206453087 1726915239.80974
0.00977971759987978 -0.0113852111030766 -0.0103241221032202 0.0182168440021101 1726915239.82942
 -0.0449328624392122  0.00703900051603661 -0.00702052276050218 0.0460195327559576 1726915239.87685
-0.0806988014818515  0.0556455503923907 -0.0191305118642001 0.0998734215057524 1726915239.89376
 -0.0377465775759036 -0.00738300445827831  -0.0638107608888479 0.0745058794910736 1726915239.91059
-0.00213052224676986 -0.00307198310747679  -0.0119911197878025 0.0125603805285522 1726915239.94886
-0.0459669998914405  0.0102559503459142 -0.0350845293171897 0.0587288157034201 1726915239.97778
-0.0681382658713684  0.0345602420198738 -0.0303568333994767 0.0822117445288271 1726915239.99465
-0.0632474656113178  0.0111176143043795 -0.0291057060768571 0.0705052152702774 1726915240.01145
 -0.0214305511453119   0.0015362020890636 -0.00227625036944042 0.0216057805921159 1726915240.05097
-0.0645538565356331  0.0272597585197391 -0.0376982388285945 0.0795704218849902 1726915240.07853
-0.0834889755912442  0.0437077508629602 -0.0338437308253507 0.100130787707641 1726915240.09534
-0.0911146228189051 0.00694176163372901 -0.0244532610293932 0.094593998334897 1726915240.11232
 -0.0362412484389054  0.00102632112886519 0.000544674409093331 0.0362598689142962 1726915240.15525
  -0.11289996111996  0.0276435790906098 -0.0363620363296412 0.121789845109785 1726915240.17942
-0.123376099723915 0.0280170682328107 -0.047587444764396 0.135170939904448 1726915240.19611
-0.0948267172587729 -0.0174913623917452 -0.0348591815791304 0.102533977806196 1726915240.21314
 -0.0323604342465879 -0.00565527873100528 -0.00452445801344289 0.0331609801192382 1726915240.25678
 -0.109834831258589 0.00696337177698972 -0.0202170439050655 0.111896861298102 1726915240.28012
  -0.11571622477927 0.00649008988011788 -0.0290425141662375 0.119481519796639 1726915240.29683
-0.0563979599060494 -0.0162399625103997 -0.0393635785498594 0.0706679388418432 1726915240.31403
 -0.0261379273351103 -0.00261710406365124  -0.0199772209857846 0.0330019671742513 1726915240.35874
-0.0663113344894325 0.00640140856760873 -0.0160174074536768 0.0685180885238049 1726915240.38074
 -0.066127432057156 0.00632268367642379 -0.0105284380103121 0.0672581712974928 1726915240.39742
  -0.0384714059334239 -0.000643905301306311   -0.0185934897210144 0.0427338454686306 1726915240.41489
  -0.0148535794098061 -0.000986259157160349  -0.00458258437104326 0.0155756735946227 1726915240.46071
-0.0384622262766768  0.0216466595290781 -0.0202665515120427 0.0485659739850483 1726915240.48124
-0.0406065779412616  0.0212911219875001 -0.0101212116141222 0.0469536470588197 1726915240.49797
  -0.029562962642047   0.0225179443726486 -0.00281512391376415 0.0372686396531267 1726915240.51574
-0.00692384155942527  0.00195759592849809 -0.00690638977902241 0.00997346396890679 1726915240.56314
 -0.029988324295793  0.0389621317399265 -0.0170944172713212 0.0520534956139843 1726915240.58196
 -0.028424111768207  0.0444266266832195 -0.0284070087744112 0.0599050368147049 1726915240.59863
-0.0635496721468062  0.0403772985163636 -0.0244752609751922 0.07917023092836 1726915240.61662
-0.00288423674088455  0.00553543127274723 -0.00213182501536547 0.00659579402717477 1726915240.6651
 0.0368570913931082  0.0542250836612161 0.00445988441646335 0.0657167821262882 1726915240.68249
 0.0117113503049112  0.0561332245093438 -0.0229371021212253 0.0617592525335294 1726915240.69933
  -0.0454427080677313 -0.000420985447882134   -0.0616232107907994 0.07656785914105 1726915240.71751
0.00563604192786953 -0.0019907135986723  -0.032011723117212 0.0325649861995623 1726915240.76556
 0.0323203296006295  0.0193612453445101 -0.0276719707940548 0.0467461174260566 1726915240.78297
 0.0520812137079527  0.0151032194757513 -0.0343875663502544 0.0642110954533506 1726915240.79986
  0.114321837353632 -0.0144628702902194 -0.0438443548677035 0.123292272939983 1726915240.81834
-0.0388122411525007 -0.0102209251232697  -0.035127535080288 0.0533366768225414 1726915240.86501
 0.0416879934932868 -0.0222212343661085  0.0181323311237478 0.0506009238080796 1726915240.8828
  0.338324571370396 -0.0560542046021326  0.0859822939643776 0.353551331947592 1726915240.90004
 0.818679054036601 -0.960621192073913 0.0443461572088028 1.26293113424246 1726915240.9192
   0.964067910976923   -0.675078469993366 0.000752238921740406 1.1769275438562 1726915240.9648
  1.84094722874854 -0.646344558406346  0.125228868855945 1.95512921742103 1726915240.98267
   1.4227074586003  -0.62189385011479 0.0333136167109288 1.55304805805419 1726915241.00059
  0.790670220894787   0.464356654374306 -0.0266578510485936 0.917331533140575 1726915241.02008
   0.456734672980208     0.30498522754042 -0.00599582054451122 0.549234467585768 1726915241.06488
  1.53257917838204 0.0844347493017867  0.147107796815511 1.54193672658243 1726915241.0831
  1.52653641126066 0.0598685641441225  0.190179677494259 1.53950185761793 1726915241.10103
  1.47796564928113 -0.325443418175144  0.181341731660313 1.52419838030687 1726915241.12097
 0.995866964071073 -0.333741632913077 0.0942669006072573 1.05452393819094 1726915241.16493
  2.16675156220596 -0.160230810784809  0.108774828985519 2.17538920850214 1726915241.18333
  1.71114451762478 -0.177772888255222 0.0161527286388344 1.72043008304274 1726915241.20137
 0.221555521803086  0.530841530254324 0.0514047823399275 0.577513663155778 1726915241.22179
0.0548391203076503  0.391822286253864  0.034280133687645 0.397123608825973 1726915241.26468
 0.330200766167841   0.46238340102335 0.0261292425419166 0.56878264111659 1726915241.28325
 0.319423959914467  0.432148769138845 0.0816224928339693 0.543549865396073 1726915241.3017
-0.184797640144014 -0.470988549713575 0.0452348794687295 0.507963164102126 1726915241.32269
 -0.0548029308011263   -0.396051433543591 -0.00144531295086229 0.399827698097384 1726915241.36501
 0.0452995497152498  -0.514613960440861 -0.0128207080873449 0.516762951497971 1726915241.38387
0.0819218156995217 -0.501047914419946  0.173509205598381 0.536531118258265 1726915241.40224
-0.0524934551750687   0.207634970496659   0.267428623694406 0.342616276000498 1726915241.42364
-0.0810669735123245   0.236555849239532  0.0971109516235692 0.268255588812459 1726915241.46593
0.0850355607923693  0.425096169687471 0.0898838003065435 0.442737955951123 1726915241.48468
0.174868969236533 0.446809538794591  0.16356454204334 0.506923347039304 1726915241.50301
0.280801373002415 0.355558537716684 0.167026734855504 0.482875983022307 1726915241.52438
0.264609642330173 0.221924708408733  0.06428503447509 0.351285360745174 1726915241.56641
 0.437745311084588  0.780771433729017 0.0914782530120433 0.899774004891197 1726915241.5853
 0.251418714323179  0.814133258817597 0.0527708008814426 0.853703162961547 1726915241.60366
-0.160603225104517   0.74060917066451 0.0852649389988708 0.762604385909776 1726915241.62527
 0.131569574599362  0.675729015865476 0.0640718871531543 0.691393854880232 1726915241.66711
 0.240991393214175   1.18551735505185 0.0936271417570197 1.21338134665324 1726915241.68592
  0.16808916769598    1.1279758208356 0.0618325802885494 1.14210625104305 1726915241.70436
 -0.122689919550318 -0.0263997096342126 -0.0861333396921605 0.152212723629003 1726915241.72612
-0.0164363469552885  0.0914452803933554 -0.0440035810273137 0.10280422146333 1726915241.7676
-0.0365241306834727     0.5969259674198   0.062697220911934 0.601319851836214 1726915241.78638
-0.173382810501992  0.750957529381712  0.134580651779785 0.782375077406052 1726915241.80501
 0.0182227864233519   0.436727430880418 -0.0900575214272323 0.446288332800733 1726915241.82698
 0.0965850487369849   0.479785084831653 0.00468880022086754 0.489432716636264 1726915241.8678
   0.227887827773268     1.15153099664689 -0.00373173035837002 1.17386984972665 1726915241.88667
0.0767617071495857  0.998989480691878 0.0716734952945322 1.00449461528934 1726915241.90526
 -0.0824651895557347   0.0798220005873978 -0.00299296818073657 0.114808610847657 1726915241.92768
 0.151264095429119  0.075576611940765 0.0430301142610105 0.174482783023856 1726915241.96779
 0.394179386254923  0.655074038955608 0.0979964160151235 0.770780567096583 1726915241.98658
0.204630057864538 0.716761720902819 0.121187899273538 0.755186951730198 1726915242.00513
-0.0296725554246084   0.263339328256621   0.134149732048796 0.297025609941026 1726915242.02755
-0.0474960764416807   0.318904957958136  0.0783247072398978 0.331799652278073 1726915242.15057
-0.0556892595530397  -0.684075991154279  -0.275478917337907 0.739560605495548 1726915242.16941
-0.162992648983169 -0.636860885832785 -0.198498654607694 0.686702342654614 1726915242.18795
 0.231092643289089 -0.994031783218332 -0.128892509045363 1.0286477894394 1726915242.2107
5.50231226152942e-05    -1.24051374113595    0.180529163762483 1.25358092038106 1726915242.25143
-0.0326198080740008   -1.08990655293283   0.352208161399185 1.14586689233999 1726915242.27028
-0.125900789431629 -0.749540773693065 0.0498211108945543 0.761672188870431 1726915242.28876
  0.0924454110732578 0.000797271287056662   0.0461362531043986 0.103321553997808 1726915242.31174
-0.0475720174028336  -0.287460137983748   0.119623093006186 0.31497001785849 1726915242.35204
 0.0780125960272433   -0.48404499266462 -0.0233683927773454 0.490847839807407 1726915242.37106
  0.22238843300376 -0.514029261634802 0.0589168382204815 0.56316417746212 1726915242.38981
 0.549634433185886 -0.291981829095091  0.119707711542845 0.633783350103259 1726915242.41278
   0.45013630867731 -0.0849807428193994  0.0400559419395764 0.459835733196582 1726915242.45247
  0.348641118301234 -0.0563010516671714 -0.0983576637794776 0.366598783158538 1726915242.47155
  0.0460093384259136 -0.00331551846437702  -0.0845350038032484 0.0963017069064359 1726915242.49052
  -0.247655783517033 -0.00357289906482261   -0.109574385257887 0.270837033327805 1726915242.51347
-0.154122976648584 0.0531896852499943 0.0265861343869353 0.165196419724078 1726915242.55342
0.0268999218154754 0.0920497763945476  0.107124898951381 0.143779383443206 1726915242.57249
0.0353508799865655  0.022332414901047  0.166128373740407 0.171309830519937 1726915242.5913
0.0589931055158728 -0.115339137919692  0.142616369583746 0.192672603417591 1726915242.61429
0.0562803013491271  0.104106378919154  0.127543859755501 0.173991513048591 1726915242.65412
0.0715478308791233  0.103384867414543 0.0889460959956295 0.15400951563684 1726915242.67302
0.0115634760408725  0.131591975140634 0.0749766200577489 0.151893566206226 1726915242.69181
-0.0595387326231595   -0.11976348639688  0.0477261749981187 0.142006834822338 1726915242.71483
-0.0591910796898575  0.0512436277644832  0.0582523416638901 0.0975849814809767 1726915242.75475
 -0.046626573684452   0.112196341249893 0.00044943190920578 0.121500034372238 1726915242.77344
-0.049313667015919 0.0257776639380548 0.0271317654761618 0.0619068526942993 1726915242.792
-0.0582566416183255 -0.0655814550322627   0.051210891823949 0.10157420429518 1726915242.81514
-0.109684431520862 0.0291483186660834 0.0834091673888293 0.140845263333958 1726915242.85546
 -0.176352907481959 -0.0822457091551021  0.0489458369280332 0.200649942946296 1726915242.8736
-0.151082998800377 -0.124536565504057 0.0559422059489618 0.203629465157911 1726915242.8919
 -0.12565351402809 -0.141781451874709  0.116775164710359 0.222547129337674 1726915242.91528
-0.196066053530527 0.0244828286181396  0.110398962083013 0.226338766174041 1726915242.95567
-0.0695346622938131   0.237760106038034  0.0349635659680232 0.250174715406517 1726915242.97366
 0.0419326450620869   0.171732718867734 0.00540247493247957 0.17686056707758 1726915242.992
 0.0529220545241865  0.0413497394477454 0.00115297747693634 0.0671704858142304 1726915243.01568
0.0632853739907887 0.0122818334057042 0.0133341880886712 0.0658307114114949 1726915243.05629
-0.0616279837675594  0.0156466324464373  0.0156423271508396 0.0654790645081492 1726915243.07403
-0.0749661743585842  0.0214508206744547 -0.0189088057354089 0.0802347053332203 1726915243.09225
 -0.101202218029385 -0.0385438409785367 -0.0558226054081715 0.121834641567997 1726915243.11635
 0.00942312238181612 0.000132992656961391  0.00604012068224782 0.0111935687037516 1726915243.15697
-0.0816526417818449  0.0509869987426148  0.0189431129414924 0.0981104962715398 1726915243.17476
-0.0559944560702827  0.0278051613325667  0.0255518517185744 0.0675381613133264 1726915243.19291
-0.00786633467125636  0.00658907048513527  -0.0229816294983856 0.0251684398686005 1726915243.21705
 0.0394060279120298 0.00262347822388011 -0.0886569230652504 0.0970554876407953 1726915243.25756
-0.0475637033938717  0.0553664397680399   -0.13467439980977 0.153182709524443 1726915243.27545
-0.0542984115087244  0.0379692785636418  -0.110245373513633 0.128623582550692 1726915243.29366
-0.0486863199322018  0.0171041564094432  -0.105759648731728 0.117677581615522 1726915243.31804
 -0.135095928331942 -0.0184766315633694 -0.0235004621431958 0.138363895170458 1726915243.35852
0.00939171621917859 -0.0835499596960426  0.0354951797439796 0.0912617547706012 1726915243.37625
 0.0624257697222294 -0.0643662574965661  0.0300744611134288 0.0945751819495485 1726915243.39481
 0.130485164408391 -0.225593859081579 -0.016402086864432 0.261128312979486 1726915243.41892
 0.247516382938127 -0.441784102133998 0.0111846444339055 0.506520136808231 1726915243.45933
 0.168961141240199 -0.334559956185443 0.0259677957062971 0.375702752113743 1726915243.47708
-0.0711811219735619   0.216069722910058 -0.0335145247132998 0.229948039023173 1726915243.49555
 -0.104234358284011   0.703072014941868 -0.0133835307100003 0.71088267564737 1726915243.51976
-0.269782453720092  0.677520037019327   0.10180310388771 0.73632862558716 1726915243.56065
-0.431797386836732  0.220385979639828 -0.062990073424252 0.48886267258897 1726915243.5781
 -0.180995705510123  -0.406984189515796 -0.0107327058157753 0.445545471195774 1726915243.59635
   0.075107554889941   -0.707314344320188 -0.00409434896124411 0.711302671284215 1726915243.62054
  0.26267851403331 -0.641653605072845  0.012540213608228 0.693452671488881 1726915243.66113
 0.250796013567087 -0.413117209147899  0.156502021730081 0.507993456376058 1726915243.67854
-0.00745189984747833    0.102623732512772   0.0769548642224283 0.128488180054362 1726915243.69657
-0.153106881715699  0.208389418987474  0.108473406710708 0.280418164779083 1726915243.72141
 -0.0590561315401239 -0.00757902287888344   0.0440786291168851 0.0740809948981989 1726915243.76179
 0.0876057743603169  0.0246189537543802 -0.0334887917290145 0.0969657865264876 1726915243.77934
  0.162460633577764  -0.121582859469884 -0.0615982089445888 0.212061756393139 1726915243.7975
  0.147064543768887  -0.195252921856088 -0.0680239545621054 0.253730057189837 1726915243.82222
 0.0653399718433661  0.0344366426961717 0.00665970634299484 0.0741589237330923 1726915243.86248
-0.0315207213334262   0.133704126837343  0.0954947255801619 0.167300902628605 1726915243.88019
-0.0865143759097191   0.133213148443581  0.0862487036150876 0.180746560223377 1726915243.89836
 -0.26545050383441 0.0340553481372567 0.0410549152062352 0.270756796378749 1726915243.92308
-0.00327262276504201   0.0028462739488879   0.0182714738315332 0.0187791930372632 1726915243.86891
   0.107749567190934  -0.0345165890256066 -0.00173226328032616 0.113156373589244 1726915243.88652
  0.115630029337066 -0.0178363051771188  0.0367273174631087 0.122626805042364 1726915243.90409
 0.126218584750244 -0.241999792648851 0.0459551651021263 0.276779529550155 1726915243.94517
 0.0850285989433118  -0.240958365851419 0.00479745522919998 0.25556567118595 1726915243.96898
 0.272120344674606 -0.347915990993031 0.0125173578488639 0.44187294895932 1726915243.98672
  0.265397718135971  -0.248820199357698 -0.0470818260548019 0.36682984985527 1726915244.00437
  0.566835256774991  -0.347361443891927 -0.0875802558015211 0.670546405726042 1726915244.046
  0.410813747546572   -0.29499844392208 -0.0331712362084712 0.506845487304864 1726915244.06917
  0.876099463671935  -0.342005527749219 -0.0746765020110224 0.943448266313462 1726915244.08701
  0.812548016967321  -0.251020722486511 -0.0547228319469753 0.852197319481511 1726915244.10487
   1.14750277822117   0.077526297727542 -0.0823760245325105 1.15306494278615 1726915244.14687
  0.937857527706139   0.038644354908912 -0.0701799278439442 0.941273260383816 1726915244.16974
  1.84460692881959 -0.381776738112566 -0.145766563729665 1.8893321811462 1726915244.1876
   1.46164412545899  -0.487269501667431 -0.0269682693503462 1.54096151940785 1726915244.20539
    1.4765283828756   -1.28575715854633 -0.0694335892788361 1.95911422829566 1726915244.24774
   1.24530021423761   -1.03705646563562 -0.0315612942097373 1.62088088760065 1726915244.27017
   2.65582214529598   -1.71033424258551 -0.0898941910326789 3.16017649101858 1726915244.28803
  2.22830214417777  -1.57276214348747 -0.390681214164622 2.7552754883742 1726915244.30583
   2.1099899654732   -1.3988270572246 -0.481592096970194 2.57695668149183 1726915244.34864
  2.00822215549137  -1.29794119258117 -0.276149242444552 2.40704507006166 1726915244.37059
 4.14008205786408 -2.43525527308433 -0.61198972267237 4.84203253929481 1726915244.38853
  3.66856644876484  -2.43309771570841 -0.769330373891469 4.46880448301116 1726915244.40661
  3.09737155883885   -1.5013615246303 -0.740518511990847 3.52081874962986 1726915244.44947
  2.97631323693012  -1.33935965304389 -0.470632413821717 3.29754751799985 1726915244.4713
  5.88077960597749  -2.59548212905934 -0.984701060628729 6.50305562294761 1726915244.48922
  5.38179424455859  -2.64815081811768 -0.813517649972774 6.05295159513758 1726915244.50727
     4.61993495782  -1.04748355232746 -0.829697974251211 4.80930551487015 1726915244.55033
  4.36180960182831 -0.916148519796767 -0.585703727483064 4.49530421321127 1726915244.57184
  6.58299784487983  -1.98274632277838 -0.874837949386994 6.93054723985569 1726915244.58977
  6.28991533698226  -1.80265891584362 -0.986562873592491 6.61709304882636 1726915244.60793
  5.02408125960834  -1.52381178321279 -0.763489165933765 5.30530965734368 1726915244.6512
  5.07193752098642  -1.43618427597969 -0.548963546850051 5.299861929063 1726915244.67259
  6.48058632125836  -1.96437020142179 -0.938185323079039 6.83644213432366 1726915244.69051
 6.40985982391284 -1.65805398999713 -0.77950827439662 6.66656426848269 1726915244.70868
  6.38002580426339  -1.19265614095387 -0.965754205773617 6.56199962813098 1726915244.75208
   6.1672448723421  -1.06848368367095 -0.820249766542771 6.31263624622982 1726915244.77306
 6.40921019913738 -1.47120802006865 -1.41359252700519 6.7261186614158 1726915244.79097
 6.13921634870012 -1.28488367308897 -1.61418604051574 6.47661176873474 1726915244.8093
 6.22988408276852 -1.03316321782759 -1.57161839291726 6.50760065556887 1726915244.85295
  6.15022991488452 -0.840090395088063  -1.60929127348711 6.41255785788959 1726915244.87386
 6.59150290197455 -1.17158036915878 -1.75817416162295 6.92182688679337 1726915244.89167
 6.46580634488395 -1.18924784625921  -1.6978057222472 6.78995628850945 1726915244.9102
 6.30581686983164 -1.85232504467733 -1.84427995044716 6.82611185101838 1726915244.95382
 6.15342788320611 -1.75459434151158 -1.79516813072711 6.64574334703509 1726915244.97457
 6.88647612399258 -3.04596795631614 -2.25353981538821 7.86002009518834 1726915244.99233
 6.44925199708353 -3.40291003423152 -2.62834771871729 7.75118440971738 1726915245.01122
 6.47499001218925 -3.46861556338717 -2.93932709758704 7.91179078155708 1726915245.05469
 6.56610867909322 -3.35908973231292  -3.0451429948888 7.97935855032932 1726915245.07521
 6.49268938217595 -3.27914990185831 -3.37773705281274 8.01978472842144 1726915245.09297
 6.70702996784004 -2.98814115292435 -3.36254518441188 8.07588686501464 1726915245.1122
 6.91762724647459 -2.52885418242256 -4.01567598061792 8.38894056352978 1726915245.15552
 7.00933074967334 -2.59834022990966 -4.09551641557668 8.52381042837892 1726915245.17592
 7.16992665140167 -2.44743528978051 -4.55693082979975 8.84100708470039 1726915245.19377
 7.28031598831866 -2.34138428578118 -4.33237136270152 8.78945520995627 1726915245.21344
 7.49276563513473 -1.86230519165131 -4.09085400184678 8.73755137062628 1726915245.25639
 7.19919595126435 -1.79500105086895 -4.16887782698512 8.51058126414699 1726915245.27679
 7.46684567316796 -2.33930483600864 -4.13599632931044 8.85057043691252 1726915245.29463
  7.3459057243319 -2.08412023222977 -4.27605746153062 8.75160302273094 1726915245.31474
 7.53188727825548 -1.75698895951628 -4.06558379378905 8.73758020052057 1726915245.35725
 7.72873132745882 -1.93387467257205 -4.17000456324605 8.99233547187558 1726915245.37739
 8.10110723368862 -2.30156120457364 -4.02974976922045 9.33616653625313 1726915245.39523
 7.69627698704995 -2.39957494296013 -3.34303795037345 8.72734450482585 1726915245.41543
 7.51926785315835 -2.05169314743962 -3.30894638150092 8.46746479026865 1726915245.45813
 7.43051944625027 -1.95411129879112 -3.23443834796621 8.33623186073666 1726915245.47816
 7.78873370676541 -2.47921611927668 -3.03894175613937 8.720438768674 1726915245.49592
 8.12532666265194 -2.32096541796236 -3.05022015821328 8.98396665508896 1726915245.51617
 7.74305518233001 -2.31211819598092 -2.79362348825154 8.55015358358576 1726915245.55899
 7.59393019614535 -2.09994620688902 -2.67661016059333 8.32116529384841 1726915245.57871
 8.01536581475266 -2.93668783767417 -3.65340712397998 9.28534373159101 1726915245.59657
 8.45227565710004 -2.75800737960127 -3.90660468556311 9.71128872286292 1726915245.61682
  9.1756318670715 -2.80754909326881 -3.49856454454525 10.2134473094779 1726915245.65985
 9.27978461419552 -2.83922567263803 -3.62982885945551 10.3610454325306 1726915245.67941
 8.92544577209717 -3.63938852471477 -3.83900569042088 10.3752925624079 1726915245.69738
 8.54044523378703 -3.50274175977463 -3.91175886597104 10.025480639475 1726915245.7178
 9.23119773808635 -3.57822648042556 -3.46266459722129 10.4885062109778 1726915245.76072
   9.179413603657 -3.55540063223757 -3.36934774376376 10.4045668809963 1726915245.78014
 9.01120315867878 -3.28294738641522 -4.02626653162518 10.4014589405832 1726915245.79814
 8.96718331845849   -3.248304772913 -3.70223480028761 10.2307576982856 1726915245.8188
 9.16289210859477 -3.32850917246632 -3.88585271475965 10.4946375080679 1726915245.86157
 9.11542147075096 -3.36232539692935  -3.9498276516898 10.4879587690988 1726915245.88082
 9.06399220937571 -3.92643411623832 -4.34493997060427 10.7912623445516 1726915245.89892
 9.12320164014985 -3.91452902098648 -3.86244283898114 10.6524555998781 1726915245.91973
 9.47470896315131 -4.22027272620431 -3.86659933180566 11.0693903270543 1726915245.96245
 9.26273844748131 -4.21468614356703 -3.81303229983759 10.8674338348494 1726915245.98176
 9.61458781172958 -4.85223533778655 -4.95820476939398 11.8561495055505 1726915245.99996
 9.75353432852543 -4.64001231872802 -4.76376066299835 11.804853318445 1726915246.0207
 9.61225250089238 -4.61889728076737 -4.54444941595304 11.5923091196426 1726915246.06335
 9.36745552821793 -4.56575313935104 -4.52686246447956 11.3616815909859 1726915246.08245
 9.15902408404856 -3.97013381975146 -4.36950033356682 10.8968902850289 1726915246.10069
 8.97861472130936 -3.96755183867979 -4.44898369716082 10.7773116241448 1726915246.12155
 8.70211998392927 -2.80494889939558 -4.34141611305449 10.1213894505454 1726915246.16421
8.53763050449052 -2.8650639725516   -4.51708246596 10.0749074537836 1726915246.18329
 8.35867512321647 -2.60423482576811 -5.14068802288847 10.1526431135882 1726915246.20168
 8.55262506291015 -2.56769509715238 -5.00508281156024 10.2367625511797 1726915246.22245
