 -1.7388469674 -0.54983445602  0.42757013203 1726915241.28
 -1.80926395639 -0.673204555613  0.553556857666 1726915241.3
 -1.86269906249 -0.764655267356   0.66051812306 1726915241.32
  -1.9015497483 -0.818628916961   0.73459661354 1726915241.37
 -1.93029576145 -0.834444829954  0.765527275795 1726915241.38
  -1.9544237625 -0.816176504955  0.748324078676 1726915241.4
 -1.97921643131 -0.771835696206  0.684209768566 1726915241.42
 -2.00867632477 -0.712031738141  0.580582252034 1726915241.47
-2.04479608917 -0.64834573173 0.449996339085 1726915241.48
 -2.08729118788 -0.591681220929  0.308324127119 1726915241.5
-2.13381065461 -0.55083064674 0.172399664046 1726915241.52
 -2.18055519621 -0.531441831637 0.0575307976703 1726915241.57
  -2.22316684522  -0.535494808859 -0.0247295625823 1726915241.59
  -2.25771091451  -0.561319617117 -0.0682090875631 1726915241.6
  -2.28155183222  -0.604111603015 -0.0728874246489 1726915241.63
  -2.29393652435  -0.656841094856 -0.0446863447349 1726915241.67
  -2.29614906214  -0.711414123648 0.00570389220094 1726915241.69
 -2.29118675909 -0.759920936482 0.0647934314409 1726915241.7
 -2.28301584817 -0.795806905178  0.118750177348 1726915241.73
    -2.27556773 -0.814813200855  0.155938490936 1726915241.77
 -2.27170502759 -0.815561460604  0.169096171684 1726915241.79
 -2.27239944255 -0.799698518005   0.15675297495 1726915241.81
 -2.27631704292 -0.771573732585  0.123621200334 1726915241.83
 -2.27991539191 -0.737488024978   0.07987284057 1726915241.87
 -2.27804580811 -0.704621404807  0.039418150068 1726915241.89
 -2.26494887309 -0.679803065492 0.0174751359267 1726915241.91
 -2.23545197662 -0.668323752313 0.0278373450086 1726915241.93
 -2.18613591773 -0.672995369805 0.0802945737082 1726915241.97
 -2.11623764368 -0.693632985509  0.178638972399 1726915241.99
 -2.02809729569 -0.727069770426  0.319605946961 1726915242.01
 -1.92703609308 -0.767722435491  0.492964002715 1726915242.03
 -1.82065987002 -0.808617651978  0.682789464387 1726915242.15
 -1.71770610776 -0.842690990191  0.869758202856 1726915242.17
-1.62666362637 -0.86410492774   1.0340893815 1726915242.19
 -1.55445977326 -0.869322099106   1.15863016267 1726915242.21
 -1.50550138483 -0.857720304502   1.23151834468 1726915242.25
 -1.48126560273 -0.831634606724   1.24792667964 1726915242.27
 -1.48048735118 -0.795832966914   1.21057206215 1726915242.29
 -1.49982933232 -0.756545627062   1.12892596631 1726915242.31
 -1.53480216022 -0.720251616293   1.01732743688 1726915242.35
 -1.58066563936 -0.692465959562  0.892410671491 1726915242.37
 -1.63309439307 -0.676765309181  0.770367538408 1726915242.39
 -1.68850534712 -0.674240360124  0.664554993517 1726915242.41
 -1.74407316241 -0.683477178455  0.583844249943 1726915242.45
 -1.79755486988 -0.701058774245  0.531929451109 1726915242.47
 -1.84707815121 -0.722463241222  0.507611774618 1726915242.49
  -1.8910180784 -0.743142929165  0.505890426694 1726915242.51
  -1.9280173009 -0.759527673112  0.519557117285 1726915242.55
 -1.95712789072 -0.769719959001  0.540926767548 1726915242.57
  -1.9779985671 -0.773736430667  0.563351813785 1726915242.59
 -1.99101399481 -0.773272620613  0.582251985571 1726915242.61
-1.99731201965 -0.77108880835 0.595522941045 1726915242.65
 -1.99864697766 -0.770199878815  0.603333885285 1726915242.67
  -1.9971154243 -0.773081197611  0.607453361684 1726915242.69
-1.99480017713  -0.7810753192 0.610327319943 1726915242.71
 -1.99341063507 -0.794116169133   0.61415997886 1726915242.75
  -1.9939990575 -0.810801598771  0.620215974782 1726915242.77
 -1.99681563302 -0.828764978398  0.628484660791 1726915242.79
 -2.00133467094 -0.845238521921  0.637745471331 1726915242.82
 -2.00644685699 -0.857673324607  0.645971631044 1726915242.86
 -2.01077567342 -0.864283668105  0.650931494561 1726915242.87
 -2.01304703258 -0.864410545906  0.650810007813 1726915242.89
 -2.01242614649 -0.858643240699  0.644684721227 1726915242.92
-2.00873897153 -0.84868869969 0.632746196326 1726915242.96
 -2.00251856189 -0.837026957473  0.616233830617 1726915242.97
 -1.99485659534 -0.826428507935  0.597139481833 1726915242.99
 -1.98708964589 -0.819430166302  0.577787448041 1726915243.02
 -1.98039659061 -0.817866978169  0.560414436752 1726915243.06
 -1.97541430943 -0.822540748447  0.546846798218 1726915243.07
 -1.97198288443 -0.833076242403  0.538319436073 1726915243.09
-1.96910531166   -0.847981674 0.535424716728 1726915243.12
 -1.96515559478 -0.864897926345  0.538142045032 1726915243.16
 -1.95830536753 -0.880995391302  0.545891445841 1726915243.17
 -1.94707855349 -0.893459076387  0.557576264675 1726915243.19
 -1.93090093485 -0.899990216128  0.571618433019 1726915243.22
 -1.91049781233 -0.899245166205  0.586026104926 1726915243.26
 -1.88801313016 -0.891131799669  0.598550063115 1726915243.28
 -1.86677575818 -0.876894652032  0.606971249451 1726915243.29
-1.85071508724 -0.85894745979 0.609517369195 1726915243.32
 -1.84351539661 -0.840456460613  0.605344216096 1726915243.36
-1.84767886041 -0.82473389743 0.594959010307 1726915243.38
 -1.8637199272 -0.81455535454 0.580433389866 1726915243.39
 -1.88971905212 -0.811549606455  0.565271893681 1726915243.42
 -1.92140802103 -0.815810324854  0.553873423848 1726915243.46
 -1.95284347392 -0.825838480591  0.550635723451 1726915243.48
 -1.97757127196 -0.838848521057  0.558876216584 1726915243.5
 -1.99003370879 -0.851379005315  0.579835611761 1726915243.52
 -1.98687554696 -0.860065820957  0.612054248876 1726915243.56
 -1.96780491172 -0.862389390384  0.651344024339 1726915243.58
 -1.93577196468 -0.857212749484  0.691430849559 1726915243.6
 -1.89641189299 -0.844985116191  0.725157000513 1726915243.62
 -1.85689708292 -0.827578117995  0.745971088307 1726915243.66
 -1.82448862212 -0.807819657466  0.749350587193 1726915243.68
 -1.80512594764 -0.788862509728  0.733822562184 1726915243.7
 -1.80234352064 -0.773550700891  0.701358430314 1726915243.72
 -1.81668979714 -0.763923904793  0.657075534058 1726915243.76
 -1.84569609748 -0.760942859741  0.608331632124 1726915243.78
 -1.88434016214 -0.764450275418  0.563410123014 1726915243.8
-1.92588559861 -0.77332353382 0.530048110068 1726915243.82
 -1.96294712864 -0.785740964658  0.514060691177 1726915243.86
 -1.98861838905 -0.799476014766  0.518278513885 1726915243.88
-1.99749612103  -0.8121492295 0.541958175346 1726915243.9
 -1.98644456716 -0.821398676594  0.580757919288 1726915243.92
 -1.95497470899 -0.824965942477  0.627299507356 1726915243.87
 -1.90516874712 -0.820727677017  0.672262527707 1726915243.89
 -1.84115547365 -0.806723088697  0.705881202572 1726915243.9
 -1.76822253775 -0.781229164228  0.719641041597 1726915243.95
 -1.69171933904 -0.742915622124  0.707914221366 1726915243.97
 -1.61594457879 -0.691075298435  0.669244116171 1726915243.99
 -1.54321720884 -0.625883906091  0.607007471418 1726915244
-1.47329793985  -0.5486102979 0.529257723679 1726915244.05
-1.40326643842  -0.4616871732 0.447682758785 1726915244.07
 -1.32787790408 -0.368569077781  0.375777068107 1726915244.09
-1.24033669515 -0.27334758933 0.326499841834 1726915244.1
 -1.13335064472 -0.180152815462  0.309827046118 1726915244.15
 -1.00028290017 -0.092430599631  0.330668459417 1726915244.17
  -0.83620839861 -0.0122298704019   0.387584384583 1726915244.19
-0.638710314977 0.0603486278152  0.472599094639 1726915244.21
-0.408308799742  0.127408629345  0.572195143341 1726915244.25
-0.148483902716  0.193135719041  0.669334121508 1726915244.27
0.134680193941 0.263282968875 0.746143517725 1726915244.29
0.433153535788 0.344329157609 0.786783511366 1726915244.31
0.737816592816 0.442440695419 0.779983818308 1726915244.35
 1.03939819748 0.562411061596  0.72081290719 1726915244.37
 1.32937877396 0.706761121661 0.611384369876 1726915244.39
 1.60074870427 0.875157817223 0.460386253811 1726915244.41
 1.84852580029    1.064252781 0.281510515952 1726915244.45
  2.06996254091   1.26796785375 0.0910388228425 1726915244.47
    2.2644156938     1.4781755789 -0.0950122868323 1726915244.49
  2.43290582285    1.6856546439 -0.263689799274 1726915244.51
  2.57745568862   1.88115748687 -0.407328264006 1726915244.55
 2.70035435893  2.05641999172 -0.52474989689 1726915244.57
  2.80353129058   2.20497133229 -0.621152921757 1726915244.59
  2.88822160693    2.3226539317 -0.706640486987 1726915244.61
  2.95504805732   2.40782135454 -0.793622545707 1726915244.65
  3.00454253855   2.46122981338 -0.893584293061 1726915244.67
 3.03800382866  2.48566816671 -1.01389147946 1726915244.69
 3.05847069786  2.48538266911 -1.15534278032 1726915244.71
3.07151455667 2.46535632347 -1.3110617318 1726915244.75
 3.08555150115  2.43051233619 -1.46706456373 1726915244.77
 3.1114535264 2.38493430269   -1.60449852 1726915244.79
 3.16139327934  2.33122485511 -1.70318953578 1726915244.81
 3.24705273469  2.27013867079 -1.74584173641 1726915244.85
 3.37751458571  2.20060276905 -1.72205599874 1726915244.87
 3.55728368511   2.1201683925 -1.63132199407 1726915244.89
 3.78491260353  2.02583762702 -1.48430062486 1726915244.91
 4.05261135112  1.91510522282 -1.30202986896 1726915244.95
 4.34701921786  1.78698743951 -1.11309905649 1726915244.97
    4.651051326   1.64280029035 -0.949258834925 1726915244.99
  4.94647135531   1.48650428488 -0.840271148231 1726915245.01
  5.21665729144   1.32453545661 -0.808974735724 1726915245.05
  5.44897369594   1.16516239459 -0.867503604811 1726915245.08
 5.63625966624  1.01751199075 -1.01535613225 1726915245.09
 5.77715972437 0.890466389266 -1.23962840623 1726915245.11
 5.87530384361 0.791639351941 -1.51728924582 1726915245.16
 5.93760836498 0.726597639495 -1.81898738301 1726915245.18
 5.97215805664 0.698419618297 -2.11362697488 1726915245.19
 5.98620316778  0.70760159359 -2.37287072221 1726915245.21
 5.98475526787 0.752253667783 -2.57482829143 1726915245.26
 5.97010760817 0.828487063896 -2.70641819205 1726915245.28
 5.94237331637 0.930890642548 -2.76418598406 1726915245.29
 5.90087489229  1.05302099809 -2.75364953459 1726915245.31
 5.84598719671  1.18787241974 -2.68746724291 1726915245.36
 5.78089034817  1.32832952073 -2.58285861836 1726915245.38
 5.71267329168  1.46762001216 -2.45874706396 1726915245.4
 5.65236077495  1.59977306736 -2.33306031341 1726915245.42
 5.61369613592  1.72005810616 -2.22053926147 1726915245.46
 5.61084178468   1.8253458411 -2.13129203717 1726915245.48
 5.65547459647  1.91431478974 -2.07020231785 1726915245.5
 5.75396713675  1.98743325837 -2.03717143042 1726915245.52
 5.90539241586  2.04668151578 -2.02805550722 1726915245.56
 6.10094572544  2.09503466166 -2.03606557395 1726915245.58
 6.32506652001   2.1357882101 -2.05334307179 1726915245.6
 6.55813517013   2.1718553518 -2.07241641724 1726915245.62
 6.78021352806  2.20517941643 -2.08729102939 1726915245.66
 6.97500227966  2.23638063087 -2.09402211873 1726915245.68
 7.13308760007  2.26470139494 -2.09074964541 1726915245.7
 7.25368094193  2.28824784924 -2.07730718564 1726915245.72
